# .PCD v0.7 - Point Cloud Data file format
VERSION 0.7
FIELDS x y z rgb
SIZE 4 4 4 4
TYPE F F F U
COUNT 1 1 1 1
WIDTH 1159
HEIGHT 1
VIEWPOINT 0 0 0 1 0 0 0
POINTS 1159
DATA ascii
0.25771195 -0.20355493 1.9503589 1315860
0.26536816 -0.20182857 1.9517295 1315860
0.27474925 -0.20372364 1.9519912 1315860
0.28562486 -0.20428342 1.9528733 1315860
0.29482466 -0.20340879 1.9540961 1315860
0.30510765 -0.20402709 1.9548986 1315860
0.31461295 -0.20412208 1.955809 1315860
0.32412761 -0.2042172 1.9567201 1315860
0.33150536 -0.20414843 1.9560353 1250067
0.34508961 -0.20442727 1.9587276 1447446
0.35372823 -0.20668474 1.9587876 1315860
0.36585331 -0.20825469 1.9594365 1315860
0.21661451 -0.19233859 1.9502425 1315860
0.22696328 -0.19333875 1.9509168 1315860
0.235429 -0.1943216 1.9514101 1315860
0.24480452 -0.19621536 1.9516716 1315860
0.25566483 -0.19677164 1.9525534 1315860
0.26459971 -0.19423883 1.9543359 1315860
0.27520451 -0.19470155 1.9552255 1315860
0.28469741 -0.19479224 1.9561361 1315860
0.29419976 -0.19488299 1.9570476 1315860
0.30561396 -0.19499205 1.9581426 1315860
0.31513524 -0.19508298 1.959056 1315860
0.32455814 -0.19698586 1.9593191 1315860
0.33427599 -0.19382372 1.955802 1118481
0.34270346 -0.19475982 1.9558108 986895
0.17740557 -0.18114042 1.9503073 1315860
0.18585595 -0.18211982 1.9508002 1315860
0.19370361 -0.18249142 1.9514481 1315860
0.20628764 -0.18260472 1.9526577 1184274
0.21501185 -0.18509512 1.9526439 1315860
0.22525327 -0.18570551 1.9534452 1315860
0.23441833 -0.18481936 1.9546683 1315860
0.24529141 -0.18537089 1.9555533 1315860
0.25477198 -0.18545724 1.9564642 1315860
0.26426202 -0.18554367 1.957376 1315860
0.27516288 -0.18609676 1.9582629 1315860
0.28507552 -0.18754895 1.958734 1315860
0.29358956 -0.1885348 1.9592309 1315860
0.30210808 -0.18952121 1.9597282 1315860
0.33560738 -0.18936455 1.9581084 1776411
0.14760016 -0.17002043 1.951278 1315860
0.15508042 -0.17189525 1.9513583 1315860
0.16523588 -0.17431036 1.9515131 1315860
0.1743543 -0.17341796 1.9527339 1315860
0.18518946 -0.17396377 1.9536169 1315860
0.19463269 -0.17404473 1.9545259 1315860
0.20408531 -0.17412576 1.9554362 1315860
0.21543971 -0.17422311 1.9565291 1315860
0.22491109 -0.17430431 1.9574412 1315860
0.23389788 -0.17483601 1.9581455 1315860
0.24569859 -0.17630184 1.9587994 1315860
0.25511032 -0.17820194 1.9590623 1315860
0.26271161 -0.17826846 1.9597936 1315860
0.11393037 -0.16249019 1.9505959 1315860
0.12516499 -0.16439457 1.9510384 1315860
0.13491708 -0.16556191 1.9515944 1315860
0.14347395 -0.16590385 1.9523233 1315860
0.15528588 -0.16463934 1.9539433 1315860
0.16471677 -0.16471596 1.9548528 1315860
0.17415701 -0.16479266 1.9557632 1315860
0.18549658 -0.16488482 1.9568567 1315860
0.1949556 -0.16496167 1.9577688 1315860
0.20442407 -0.16503862 1.9586819 1315860
0.21572582 -0.16695265 1.9591275 1315860
0.22331215 -0.16701497 1.9598589 1315860
0.084816739 -0.1528189 1.951123 1315860
0.095767722 -0.15462831 1.9515711 1315860
0.10468141 -0.15515089 1.9522716 1315860
0.11408128 -0.15522307 1.9531795 1315860
0.12537231 -0.15530974 1.95427 1315860
0.13479085 -0.15538204 1.9551802 1315860
0.14421874 -0.15545441 1.9560907 1315860
0.15554349 -0.15554136 1.9571849 1315860
0.16499014 -0.15561387 1.9580973 1315860
0.17387219 -0.15672496 1.9585866 1315860
0.18476515 -0.15850377 1.9590396 1315860
0.19514987 -0.15949735 1.9597197 1315860
0.084200375 -0.14407378 1.9541531 1315860
0.095480353 -0.14415425 1.9552447 1315860
0.10488967 -0.1442214 1.9561554 1315860
0.11430834 -0.14428861 1.957067 1315860
0.12562197 -0.14436933 1.9581623 1315860
0.13501455 -0.14626494 1.9584248 1315860
0.14369249 -0.14669329 1.9591353 1315860
0.15385896 -0.14822981 1.9596019 1315860
0.084340058 -0.13494271 1.9573946 1315860
0.095638819 -0.13501823 1.9584899 1315860
0.10442334 -0.1356875 1.9591256 1315860
0.112573 -0.13696361 1.959484 1315860
0.084424071 -0.12944953 1.9593444 1315860
0.45613435 -0.23088259 1.9604034 1315860
0.46627381 -0.23219769 1.9609455 1315860
0.47326833 -0.23287734 1.9613998 1579032
0.42794719 -0.2233583 1.960264 1315860
0.43561769 -0.22344175 1.9609962 1315860
0.44506621 -0.22534911 1.9612603 1315860
0.45481917 -0.22364898 1.9628297 1315860
0.46443361 -0.22375356 1.9637476 1315860
0.47213092 -0.2238373 1.9644823 1315860
0.38854378 -0.21210362 1.9603293 1315860
0.3961117 -0.21338706 1.9606272 1315860
0.4045206 -0.21371552 1.961346 1315860
0.41560274 -0.21554843 1.9617988 1315860
0.42467856 -0.21609575 1.9625067 1315860
0.4342773 -0.21619675 1.9634241 1315860
0.44580731 -0.2163181 1.9645261 1315860
0.45557693 -0.21460992 1.9661002 1315860
0.46520779 -0.21471043 1.967021 1315860
0.47291821 -0.21479091 1.9677582 1315860
0.34722847 -0.20082943 1.9602118 1315860
0.35576493 -0.20181881 1.9607098 1315860
0.36542869 -0.20318229 1.9611874 1315860
0.37487409 -0.20420687 1.9617631 1315860
0.38523042 -0.20482792 1.9625721 1315860
0.39481053 -0.20492369 1.9634895 1315860
0.40440011 -0.20501953 1.964408 1315860
0.41540387 -0.20558347 1.9653015 1315860
0.42474404 -0.20470408 1.9665396 1315860
0.43514627 -0.20532686 1.9673525 1315860
0.44477305 -0.20542307 1.9682745 1315860
0.45425773 -0.20733671 1.9685401 1315860
0.4647862 -0.20835209 1.9692266 1315860
0.47339186 -0.20934859 1.9697289 1315860
0.32477382 -0.19336219 1.9606214 1315860
0.34757495 -0.19539286 1.9621677 1381653
0.35579067 -0.19410832 1.9634376 1315860
0.36491248 -0.19374044 1.9644736 1315860
0.37449291 -0.1938311 1.9653928 1315860
0.3854886 -0.19439022 1.9662871 1315860
0.39481458 -0.19350335 1.9675268 1315860
0.4046948 -0.19457242 1.9681301 1315860
0.41468877 -0.19603397 1.9686059 1315860
0.42327875 -0.19702697 1.9691079 1315860
0.4338001 -0.19803908 1.969795 1315860
0.27964911 -0.18205345 1.9601377 1315860
0.28535971 -0.18210444 1.9606867 1315860
0.2955679 -0.18364961 1.9611543 1315860
0.3061212 -0.18592535 1.9613979 1315860
0.31487113 -0.18548521 1.9624223 1315860
0.32520628 -0.18609875 1.9632318 1315860
0.3348729 -0.18436751 1.9648037 1250067
0.34483296 -0.18582258 1.9652784 1315860
0.35533604 -0.1853324 1.9664946 1315860
0.36552101 -0.18464391 1.9677495 1315860
0.37511769 -0.18473047 1.9686718 1315860
0.38459435 -0.18664128 1.9689375 1315860
0.39228255 -0.18671131 1.9696763 1315860
0.23834434 -0.17078216 1.9600201 1315860
0.24594355 -0.17084594 1.9607521 1315860
0.25536478 -0.172746 1.9610162 1315860
0.26538271 -0.17361121 1.9617051 1315860
0.27509636 -0.17525497 1.9620887 1315860
0.28433335 -0.17435834 1.963323 1315860
0.2952773 -0.17490754 1.9642156 1315860
0.30482331 -0.17498939 1.9651346 1315860
0.3143788 -0.1750713 1.9660547 1315860
0.32585686 -0.17516971 1.9671597 1315860
0.33543149 -0.17525178 1.9680814 1315860
0.34440169 -0.17637348 1.9685757 1315860
0.35381064 -0.17784755 1.9689889 1315860
0.36396721 -0.17915463 1.9695355 1315860
0.21586919 -0.16330938 1.9604297 1315860
0.22594236 -0.16460581 1.9609717 1315860
0.23478156 -0.16528527 1.9616094 1315860
0.24541144 -0.16573671 1.9625053 1315860
0.25457925 -0.16508107 1.9636475 1315860
0.26531836 -0.16370513 1.9652002 1315860
0.27485511 -0.16378175 1.9661202 1315860
0.28440139 -0.16385846 1.967041 1315860
0.29586837 -0.16395059 1.9681473 1315860
0.30533177 -0.16585851 1.9684126 1315860
0.31411609 -0.16629617 1.9691303 1315860
0.32437518 -0.16784522 1.9696014 1315860
0.17645526 -0.15205173 1.960495 1315860
0.18663646 -0.15358958 1.9609625 1315860
0.19534457 -0.15402091 1.9616747 1315860
0.20476399 -0.15591918 1.9619391 1315860
0.21566327 -0.15646012 1.9628303 1315860
0.224866 -0.15555094 1.9640657 1315860
0.23517258 -0.15615262 1.9648764 1315860
0.24469365 -0.1562257 1.965796 1315860
0.25422421 -0.15629886 1.9667165 1315860
0.26576093 -0.1545551 1.9684786 1315860
0.27464581 -0.15523416 1.9691209 1315860
0.28286833 -0.15652037 1.9694827 1315860
0.13514914 -0.14078017 1.960377 1315860
0.1455234 -0.14176761 1.9610583 1315860
0.15642364 -0.14354372 1.9615128 1315860
0.16531935 -0.14465262 1.9620045 1315860
0.17479445 -0.14472026 1.9629216 1315860
0.18568558 -0.14525634 1.9638137 1315860
0.19487403 -0.14433965 1.9650501 1315860
0.2051734 -0.14493701 1.9658617 1315860
0.21468519 -0.14500488 1.9667822 1315860
0.22420651 -0.14507282 1.9677039 1315860
0.23505327 -0.14620042 1.9683822 1315860
0.24510197 -0.14706044 1.9690763 1315860
0.2545636 -0.1489666 1.9693421 1315860
0.10698529 -0.13326238 1.9602373 1315860
0.11546085 -0.13423462 1.9607353 1315860
0.12583078 -0.13522001 1.9614168 1315860
0.13528401 -0.1352832 1.9623334 1315860
0.14474665 -0.13534646 1.9632508 1315860
0.15611315 -0.13542242 1.9643527 1315860
0.16559468 -0.1354858 1.9652721 1315860
0.17514409 -0.13371012 1.9668481 1315860
0.18464661 -0.13377279 1.9677696 1315860
0.19357745 -0.13488387 1.9682639 1315860
0.20473985 -0.1361156 1.9689369 1315860
0.21497181 -0.13765725 1.969408 1315860
0.22069086 -0.13769601 1.9699622 1315860
0.084508277 -0.12394416 1.9612988 1315860
0.095797844 -0.1258498 1.9617465 1315860
0.10523861 -0.12590861 1.9626631 1315860
0.11468879 -0.12596749 1.9635808 1315860
0.12604034 -0.12603819 1.9646833 1315860
0.13550939 -0.12609719 1.9656028 1315860
0.14498791 -0.12615624 1.9665233 1315860
0.15447474 -0.12621534 1.9674444 1315860
0.16348197 -0.12673236 1.9681562 1315860
0.17537792 -0.1263472 1.9694738 1315860
0.084648997 -0.11474413 1.9645648 1315860
0.095989361 -0.11480857 1.9656682 1315860
0.10544909 -0.11486232 1.9665886 1315860
0.1149183 -0.11491614 1.96751 1315860
0.12519632 -0.1155022 1.9683236 1315860
0.13460569 -0.11650684 1.9689029 1315860
0.14518143 -0.11878444 1.9691482 1315860
0.15278015 -0.118829 1.969887 1315860
0.084790163 -0.10551543 1.9678408 1315860
0.096149512 -0.10557481 1.9689479 1315860
0.10558985 -0.10747521 1.9692137 1315860
0.11127758 -0.10750546 1.9697679 1315860
0.082980901 -0.099954054 1.9696269 1315860
0.45471287 -0.20188476 1.9705124 1315860
0.46613955 -0.20381775 1.9709637 1315860
0.47263086 -0.20327491 1.9718003 1315860
0.40932831 -0.19051686 1.9700238 1315860
0.41510424 -0.1905705 1.9705784 1315860
0.42539501 -0.19212548 1.9710506 1315860
0.4360663 -0.19380647 1.9715161 1315860
0.44488016 -0.1939759 1.9723314 1315860
0.45532137 -0.19459604 1.9731492 1315860
0.464986 -0.19468749 1.9740766 1315860
0.47272447 -0.19476072 1.9748192 1315860
0.38485122 -0.18299291 1.9702526 1315860
0.39536494 -0.18400006 1.9709407 1315860
0.40588674 -0.18500797 1.9716293 1315860
0.41552067 -0.18509486 1.9725552 1315860
0.42516431 -0.18518186 1.9734821 1315860
0.43481639 -0.18526891 1.9744099 1315860
0.44447818 -0.18535604 1.9753386 1315860
0.45527896 -0.18581983 1.9762472 1315860
0.46509105 -0.18370804 1.977968 1315860
0.47322416 -0.18451446 1.9784906 1315860
0.34716493 -0.17169562 1.9705036 1315860
0.35540605 -0.17298479 1.9708662 1315860
0.3643322 -0.17367043 1.9715103 1315860
0.37574467 -0.17559737 1.9719625 1315860
0.38536611 -0.17567986 1.9728888 1315860
0.39499724 -0.17576243 1.9738159 1315860
0.40463677 -0.17584507 1.9747442 1315860
0.41428602 -0.17592779 1.9756728 1315860
0.42535746 -0.17648163 1.9765767 1315860
0.43475753 -0.17557879 1.9778292 1315860
0.44470185 -0.1766479 1.9784389 1315860
0.45475784 -0.17811278 1.9789197 1315860
0.46041778 -0.17999871 1.9788151 1315860
0.30563769 -0.16036536 1.9703847 1315860
0.31612447 -0.16136467 1.9710729 1315860
0.32470044 -0.16234951 1.9715765 1315860
0.33418497 -0.16425848 1.9718432 1315860
0.34570801 -0.16435108 1.9729551 1315860
0.35532022 -0.16442834 1.9738822 1315860
0.36494201 -0.16450565 1.9748105 1315860
0.37457228 -0.16458303 1.9757394 1315860
0.38421223 -0.1646605 1.9766693 1315860
0.39579177 -0.16475353 1.9777864 1315860
0.40500984 -0.16556403 1.9784153 1315860
0.41417903 -0.16711101 1.9787788 1315860
0.42451251 -0.16866784 1.9792547 1315860
0.43031943 -0.16871555 1.9798145 1315860
0.27731791 -0.15280782 1.9702438 1315860
0.28588024 -0.15379 1.970747 1315860
0.29444706 -0.15477273 1.9712503 1315860
0.30402747 -0.15484542 1.972176 1315860
0.31553546 -0.15493272 1.9732881 1315860
0.32513511 -0.15500554 1.9742155 1315860
0.33474433 -0.15507846 1.975144 1315860
0.34436202 -0.1551514 1.9760731 1315860
0.35398936 -0.15522443 1.9770035 1315860
0.36555377 -0.15531218 1.9781208 1315860
0.37520048 -0.15538536 1.979053 1315860
0.38472772 -0.15730228 1.9793215 1315860
0.23770921 -0.14149347 1.97031 1315860
0.2453476 -0.14154661 1.9710497 1315860
0.25481883 -0.14345266 1.9713165 1315860
0.26508617 -0.14589021 1.9714744 1315860
0.27436101 -0.14497069 1.9727204 1315860
0.28535283 -0.14550911 1.9736218 1315860
0.29493988 -0.14557754 1.9745497 1315860
0.30453655 -0.14564599 1.9754785 1315860
0.3155567 -0.14618596 1.9763818 1315860
0.32488629 -0.14526398 1.9776342 1315860
0.33479574 -0.14632367 1.9782436 1315860
0.34482402 -0.14778101 1.9787244 1315860
0.35344031 -0.14876676 1.9792316 1315860
0.36206114 -0.14975303 1.9797391 1315860
0.19619262 -0.13016614 1.970191 1315860
0.20664015 -0.13115482 1.9708791 1315860
0.21518733 -0.13213183 1.9713826 1315860
0.22515172 -0.13357911 1.9718605 1315860
0.2356184 -0.13457015 1.9725494 1315860
0.24487935 -0.13364261 1.9737971 1315860
0.25524533 -0.1342382 1.9746159 1315860
0.26482305 -0.13430133 1.9755448 1315860
0.2744104 -0.13436455 1.9764745 1315860
0.28592676 -0.13444047 1.9775912 1315860
0.295109 -0.13524123 1.97822 1315860
0.30504724 -0.13641779 1.9787909 1315860
0.3145631 -0.13833189 1.9790595 1315860
0.3222644 -0.13838404 1.9798057 1315860
0.16788344 -0.1226115 1.97005 1315860
0.17549509 -0.12265753 1.9707896 1315860
0.18495503 -0.1245608 1.9710563 1315860
0.19448309 -0.12461928 1.9719819 1315860
0.20592819 -0.12468955 1.9730936 1315860
0.21547535 -0.12474816 1.9740211 1315860
0.22503209 -0.12480682 1.9749495 1315860
0.23459721 -0.12486553 1.9758784 1315860
0.24417193 -0.12492429 1.9768085 1315860
0.25567317 -0.1249949 1.9779258 1315860
0.26526713 -0.12505379 1.9788575 1315860
0.27477852 -0.1269664 1.979126 1315860
0.28246462 -0.12701429 1.9798723 1315860
0.13397212 -0.11132856 1.9706703 1315860
0.14532699 -0.11324081 1.9711221 1315860
0.1551853 -0.11440544 1.9716895 1315860
0.16429992 -0.11519679 1.9723151 1315860
0.17572998 -0.11526174 1.9734273 1315860
0.18526453 -0.11531592 1.9743549 1315860
0.19480868 -0.11537017 1.9752837 1315860
0.20516051 -0.11595874 1.9761037 1315860
0.21441923 -0.1150181 1.9773556 1315860
0.22540943 -0.11554407 1.9782609 1315860
0.23491192 -0.11745524 1.9785291 1315860
0.24349916 -0.1184331 1.9790362 1315860
0.25401053 -0.11942277 1.9797301 1315860
0.094349556 -0.10001034 1.970736 1315860
0.10456427 -0.10154375 1.9712086 1315860
0.11563259 -0.10335988 1.9716659 1315860
0.12464529 -0.10386925 1.9723806 1315860
0.13415141 -0.10391805 1.9733075 1315860
0.1455702 -0.10397668 1.974421 1315860
0.1550954 -0.10402559 1.9753495 1315860
0.16463016 -0.10407454 1.9762794 1315860
0.17559075 -0.1045957 1.9771835 1315860
0.18483542 -0.10364699 1.9784367 1315860
0.19513531 -0.1060921 1.9785956 1315860
0.20463535 -0.1080019 1.978864 1315860
0.21229446 -0.10804263 1.9796102 1315860
0.085489236 -0.095196649 1.9715575 1315860
0.094444215 -0.094443403 1.9727132 1315860
0.10393775 -0.094487794 1.9736401 1315860
0.1153414 -0.094541103 1.974754 1315860
0.12485398 -0.09458559 1.975683 1315860
0.13437612 -0.0946301 1.9766129 1315860
0.14581417 -0.09468358 1.9777298 1315860
0.15535545 -0.094728194 1.9786617 1315860
0.16392291 -0.095700294 1.9791689 1315860
0.17249489 -0.096672952 1.9796765 1315860
0.085102424 -0.085100263 1.9750879 1315860
0.094602399 -0.08514031 1.9760171 1315860
0.1041119 -0.085180387 1.9769475 1315860
0.11553478 -0.085228533 1.9780649 1315860
0.12502146 -0.087135404 1.9783331 1315860
0.13378398 -0.087546445 1.979058 1315860
0.14405146 -0.08908435 1.9795339 1315860
0.085245103 -0.075772375 1.9783993 1315860
0.094115555 -0.076429017 1.9790481 1315860
0.10425162 -0.07771448 1.9796003 1315860
0.47593436 -0.18013451 1.9803079 1644825
0.44939831 -0.17255378 1.9803524 1315860
0.45521587 -0.17260261 1.9809129 1315860
0.46476305 -0.17452244 1.9811825 1315860
0.47252882 -0.17458832 1.9819303 1315860
0.4076573 -0.16116683 1.9802324 1315860
0.41629648 -0.16215613 1.9807407 1315860
0.42494023 -0.16314599 1.9812491 1315860
0.43500566 -0.16460808 1.9817318 1315860
0.44496933 -0.16567557 1.982344 1315860
0.45440966 -0.16476355 1.9836038 1315860
0.46554482 -0.16531403 1.9845148 1315860
0.47332397 -0.16537656 1.9852654 1315860
0.38498607 -0.15361494 1.9806505 1315860
0.39498857 -0.15442708 1.9813566 1315860
0.40433237 -0.15375832 1.9825208 1315860
0.41543764 -0.15430392 1.9834309 1315860
0.42486399 -0.15338382 1.9846923 1315860
0.43536231 -0.15399092 1.9855202 1315860
0.44507816 -0.15406375 1.9864593 1315860
0.45480379 -0.15413666 1.9873992 1315860
0.46453801 -0.15420963 1.9883403 1315860
0.47217298 -0.15612102 1.9884226 1315860
0.33938545 -0.1422006 1.9801569 1315860
0.3451713 -0.14224085 1.9807172 1315860
0.35549816 -0.14379218 1.9811943 1315860
0.36552283 -0.1460814 1.9813806 1315860
0.37441218 -0.14568233 1.9824045 1315860
0.38550389 -0.14622372 1.9833145 1315860
0.39485136 -0.14554985 1.9844809 1315860
0.40501285 -0.14451081 1.9858574 1315860
0.41471595 -0.14457917 1.9867966 1315860
0.42442885 -0.1446476 1.9877371 1315860
0.43528813 -0.14509548 1.9886572 1315860
0.44383085 -0.14540361 1.9893966 1315860
0.45152026 -0.14669645 1.9897032 1315860
0.29765522 -0.13081662 1.9800369 1315860
0.30535448 -0.13086599 1.9807841 1315860
0.31488001 -0.13278002 1.9810534 1315860
0.32502148 -0.13363989 1.9817564 1315860
0.33547068 -0.13523069 1.9822319 1315860
0.34484053 -0.13429901 1.9834917 1315860
0.35529917 -0.13489778 1.9843184 1315860
0.36497125 -0.13496156 1.9852566 1315860
0.37465313 -0.13502538 1.9861954 1315860
0.38513717 -0.13562539 1.9870243 1315860
0.39456177 -0.1346921 1.9882903 1315860
0.40555882 -0.13708952 1.9885349 1315860
0.41458035 -0.13776974 1.9891902 1315860
0.42291266 -0.13906582 1.9895595 1315860
0.27496302 -0.12325907 1.9804548 1315860
0.28515562 -0.12455756 1.9810079 1315860
0.29410464 -0.1252308 1.9816588 1315860
0.30566236 -0.12530175 1.9827814 1315860
0.31530353 -0.12536094 1.9837179 1315860
0.32495439 -0.12542017 1.9846554 1315860
0.3346138 -0.12547947 1.9855936 1315860
0.34428295 -0.12553883 1.9865328 1315860
0.35594898 -0.12481188 1.9879482 1315860
0.36558631 -0.12566958 1.988602 1315860
0.37425095 -0.12665455 1.9891143 1315860
0.38292021 -0.12764007 1.9896269 1315860
0.23514849 -0.11188509 1.9805216 1315860
0.24544783 -0.11342895 1.9809986 1315860
0.25613031 -0.11509973 1.9814688 1315860
0.26491383 -0.11523729 1.9822924 1315860
0.27533281 -0.11582777 1.9831185 1315860
0.28496131 -0.11588248 1.9840552 1315860
0.29459947 -0.11593725 1.984993 1315860
0.30504379 -0.11652894 1.985821 1315860
0.3144117 -0.11558404 1.9870852 1315860
0.32550198 -0.11611287 1.9879996 1315860
0.33506489 -0.11803352 1.9882703 1315860
0.34394878 -0.118458 1.9890025 1315860
0.35238019 -0.11999974 1.9892948 1315860
0.19533183 -0.10051031 1.9805881 1315860
0.20484149 -0.10242002 1.9808575 1315860
0.21494292 -0.10326905 1.9815606 1315860
0.22586386 -0.10438893 1.9822491 1315860
0.23546475 -0.10443822 1.9831852 1315860
0.2450753 -0.10448757 1.9841222 1315860
0.25469434 -0.10453695 1.9850599 1315860
0.26432312 -0.10458638 1.9859986 1315860
0.27588928 -0.10464576 1.9871262 1315860
0.28553745 -0.10469529 1.9880668 1315860
0.29458609 -0.10581049 1.9885713 1315860
0.30408004 -0.10728458 1.988993 1315860
0.31432593 -0.10858515 1.9895506 1315860
0.16687322 -0.092917934 1.9804454 1315860
0.17512254 -0.094199061 1.9808117 1315860
0.18403453 -0.094862275 1.9814625 1315860
0.19552879 -0.094916016 1.9825851 1315860
0.20511697 -0.094960846 1.9835213 1315860
0.21471484 -0.095005713 1.9844588 1315860
0.22432119 -0.095050633 1.9853969 1315860
0.2339372 -0.095095582 1.9863359 1315860
0.24548809 -0.095149599 1.987464 1315860
0.25512353 -0.095194638 1.9884049 1315860
0.26375887 -0.096171647 1.9889171 1315860
0.27432984 -0.097158425 1.9896179 1315860
0.12514734 -0.081535265 1.980325 1315860
0.13562369 -0.082511969 1.9810202 1315860
0.1466326 -0.084292278 1.9814842 1315860
0.15561645 -0.08539746 1.9819857 1315860
0.16518348 -0.085437797 1.9829216 1315860
0.17475899 -0.085478149 1.9838582 1315860
0.18434413 -0.085518539 1.9847959 1315860
0.19585793 -0.085567072 1.9859223 1315860
0.2054624 -0.085607551 1.9868618 1315860
0.21507663 -0.085648082 1.9878023 1315860
0.22428365 -0.086437389 1.9884377 1315860
0.23346591 -0.087977611 1.9888052 1315860
0.24573641 -0.089531697 1.9894744 1315860
0.085330941 -0.070160605 1.9803914 1315860
0.09547025 -0.071444228 1.9809446 1315860
0.10435668 -0.072100006 1.9815954 1315860
0.11576768 -0.074013382 1.9820523 1315860
0.12531565 -0.07404834 1.982988 1315860
0.13487323 -0.074083321 1.9839251 1315860
0.14443924 -0.074118339 1.9848624 1315860
0.15401489 -0.074153386 1.9858011 1315860
0.16551729 -0.074195482 1.9869285 1315860
0.17511229 -0.074230604 1.9878691 1315860
0.18413199 -0.075337954 1.9883735 1315860
0.19540522 -0.076561704 1.9890604 1315860
0.2057395 -0.078104749 1.9895413 1315860
0.085416973 -0.064536266 1.9823879 1315860
0.094952218 -0.064566746 1.9833242 1315860
0.10449708 -0.064597256 1.9842614 1315860
0.11596245 -0.064633906 1.985387 1315860
0.12552658 -0.064664476 1.986326 1315860
0.13510035 -0.064695068 1.9872659 1315860
0.14468259 -0.064725704 1.9882067 1315860
0.1534961 -0.065130532 1.988939 1315860
0.16574052 -0.066677026 1.9896084 1315860
0.085560746 -0.055137124 1.9857246 1315860
0.095112108 -0.055163208 1.9866638 1315860
0.10467312 -0.055189323 1.9876041 1315860
0.11558801 -0.056297023 1.9882965 1315860
0.12569585 -0.057133753 1.9890047 1315860
0.13523699 -0.059046928 1.9892759 1315860
0.08493381 -0.046084579 1.988862 1315860
0.095240369 -0.047620092 1.9893428 1315860
0.1009833 -0.047633633 1.9899085 1315860
0.47265086 -0.15056211 1.9904351 1315860
0.44597906 -0.14294194 1.9904799 1315860
0.45638123 -0.14450109 1.9909618 1315860
0.46532211 -0.1449357 1.9916961 1315860
0.47312984 -0.14499068 1.992452 1315860
0.40596938 -0.13151105 1.9905475 1315860
0.41625068 -0.13281848 1.9911064 1315860
0.42578298 -0.13429894 1.9915295 1315860
0.43488345 -0.13542245 1.9920362 1315860
0.44463152 -0.13548671 1.9929814 1315860
0.45518073 -0.13608897 1.9938161 1315860
0.46468231 -0.13515276 1.9950907 1315860
0.47393021 -0.13567986 1.9958225 1315860
0.36401615 -0.12006798 1.9904262 1315860
0.37633985 -0.12163309 1.9910969 1315860
0.38556215 -0.12318027 1.9914658 1315860
0.39484203 -0.12398235 1.9921036 1315860
0.40457091 -0.12404118 1.993049 1315860
0.41430959 -0.12410007 1.9939952 1315860
0.4254837 -0.12463516 1.9949158 1315860
0.43497115 -0.12369073 1.9961917 1315860
0.44553459 -0.1242889 1.9970292 1315860
0.45531163 -0.12434802 1.9979792 1315860
0.4644486 -0.1254738 1.9984888 1315860
0.47402611 -0.12695943 1.9989147 1381653
0.33540398 -0.1124365 1.9902824 1315860
0.3460072 -0.11342901 1.9909846 1315860
0.35467756 -0.11441141 1.9914984 1315860
0.36438498 -0.11446569 1.9924431 1315860
0.37524214 -0.11490063 1.9933674 1315860
0.38463092 -0.11420465 1.9945459 1315860
0.39550975 -0.11463972 1.9954724 1315860
0.40525535 -0.11469421 1.9964209 1315860
0.41501084 -0.11474877 1.9973704 1315860
0.424775 -0.11480336 1.9983207 1315860
0.43373698 -0.11522879 1.9990603 1315860
0.44418117 -0.11678897 1.9995461 1315860
0.29732814 -0.10101527 1.9905385 1315860
0.3056438 -0.10230444 1.9909086 1315860
0.31464431 -0.10297369 1.9915658 1315860
0.32502192 -0.10543299 1.991727 1315860
0.3344304 -0.10447819 1.9929988 1315860
0.34556299 -0.10500346 1.9939185 1315860
0.3552773 -0.10505334 1.9948658 1315860
0.36500141 -0.10510325 1.9958136 1315860
0.37473416 -0.10515323 1.9967626 1315860
0.38447681 -0.10520324 1.9977125 1315860
0.39478883 -0.10650893 1.9982749 1315860
0.40466037 -0.1068114 1.9991481 1315860
0.41543278 -0.10912275 1.999401 1315860
0.26678842 -0.093375891 1.9902061 1315860
0.274515 -0.093411297 1.9909608 1315860
0.2840859 -0.095330037 1.991233 1315860
0.29569378 -0.0953843 1.9923664 1315860
0.30537689 -0.095429577 1.9933121 1315860
0.31506976 -0.095474891 1.9942588 1315860
0.3247712 -0.095520243 1.9952061 1315860
0.33448252 -0.095565639 1.9961543 1315860
0.345346 -0.095992617 1.9970824 1315860
0.35473457 -0.095284142 1.9982649 1315860
0.36481509 -0.096083999 1.9989831 1315860
0.37524208 -0.097639471 1.9994689 1315860
0.22677767 -0.081944868 1.9902734 1315860
0.23541403 -0.082918756 1.9907868 1315860
0.24598531 -0.083901159 1.9914894 1315860
0.25555426 -0.085818678 1.9917618 1315860
0.26521593 -0.085859396 1.9927068 1315860
0.27488616 -0.08590015 1.9936528 1315860
0.28456622 -0.085940942 1.9945997 1315860
0.29505691 -0.086522929 1.9954356 1315860
0.30446374 -0.085554257 1.9967122 1315860
0.31560323 -0.086071752 1.9976354 1315860
0.32488814 -0.086865105 1.9982771 1315860
0.33493581 -0.088039495 1.9988598 1315860
0.34455228 -0.089966387 1.9991336 1315860
0.35039473 -0.089992084 1.9997047 1315860
0.18676454 -0.070513077 1.9903402 1315860
0.19446132 -0.070539817 1.9910953 1315860
0.20402193 -0.072455563 1.9913677 1315860
0.21551232 -0.074378476 1.9918289 1315860
0.2251547 -0.074413761 1.9927741 1315860
0.23480688 -0.074449092 1.9937202 1315860
0.24446762 -0.074484445 1.9946672 1315860
0.25413811 -0.074519843 1.995615 1315860
0.26575455 -0.074562348 1.9967537 1315860
0.27544466 -0.074597813 1.9977032 1315860
0.28453454 -0.075710751 1.9982127 1315860
0.29475331 -0.076558605 1.9989276 1315860
0.30436519 -0.078483991 1.9992017 1315860
0.31214055 -0.078513883 1.9999632 1315860
0.15816654 -0.062885493 1.9901963 1315860
0.16585238 -0.062909342 1.9909512 1315860
0.1754078 -0.064823911 1.9912233 1315860
0.18502885 -0.064854659 1.9921679 1315860
0.19465841 -0.064885437 1.9931134 1315860
0.20429777 -0.064916246 1.9940599 1315860
0.21587668 -0.064953253 1.9951967 1315860
0.22553557 -0.064984128 1.9961451 1315860
0.23520426 -0.065015025 1.9970943 1315860
0.24488154 -0.065045968 1.9980445 1315860
0.25377578 -0.065452918 1.9987838 1315860
0.26611471 -0.067007177 1.9994599 1315860
0.11623577 -0.051448621 1.9900746 1315860
0.12390525 -0.051468134 1.9908295 1315860
0.13537395 -0.053386077 1.9912906 1315860
0.14492683 -0.055299241 1.991563 1315860
0.15453507 -0.055325475 1.9925079 1315860
0.16558105 -0.05582843 1.9934272 1315860
0.17489532 -0.05484074 1.9947013 1315860
0.18534181 -0.055409603 1.9955376 1315860
0.19498783 -0.055435941 1.9964863 1315860
0.20464364 -0.055462305 1.9974359 1315860
0.21511574 -0.056032326 1.9982746 1315860
0.22469518 -0.057034504 1.9988716 1315860
0.23544334 -0.059339255 1.9991244 1315860
0.24319214 -0.05936186 1.9998859 1315860
0.086733975 -0.040983833 1.9908438 1315860
0.095336825 -0.041947477 1.9913576 1315860
0.10537287 -0.043387331 1.9918454 1315860
0.1144741 -0.043879945 1.992575 1315860
0.12407276 -0.043900777 1.993521 1315860
0.13560283 -0.043925796 1.9946573 1315860
0.14522095 -0.043946669 1.995605 1315860
0.15484886 -0.043967564 1.9965539 1315860
0.16448529 -0.043988477 1.9975033 1315860
0.17363386 -0.044483211 1.998237 1315860
0.18565576 -0.045934677 1.9989179 1315860
0.19525208 -0.047855854 1.9991919 1315860
0.20105201 -0.047869526 1.999763 1315860
0.085878693 -0.034350637 1.9931034 1315860
0.09546572 -0.034366947 1.9940498 1315860
0.10506245 -0.034383271 1.994997 1315860
0.11466771 -0.034399614 1.9959452 1315860
0.12428272 -0.034415971 1.9968945 1315860
0.13583243 -0.034435619 1.9980344 1315860
0.14546697 -0.03445201 1.9989855 1315860
0.1550587 -0.036371682 1.9992595 1315860
0.086024016 -0.024849517 1.9964765 1315860
0.095627338 -0.024861336 1.9974259 1315860
0.10475028 -0.025349028 1.9981594 1315860
0.1148231 -0.026791366 1.9986501 1315860
0.12346662 -0.027755708 1.9991676 1315860
0.13211475 -0.028720601 1.9996853 1315860
0.086140595 -0.01722802 1.9991817 1315860
0.093832731 -0.017234584 1.9999434 1315860
0.46737331 -0.12067421 2.0004759 1315860
0.47505444 -0.12259435 2.0005598 1447446
0.43860927 -0.11300414 2.0003304 1315860
0.44448248 -0.11303644 2.0009022 1315860
0.45412454 -0.11496747 2.0011771 1315860
0.4658877 -0.11503324 2.0023222 1315860
0.47373685 -0.11507712 2.0030861 1315860
0.3964479 -0.10150599 2.0002081 1315860
0.40426323 -0.10154467 2.0009704 1315860
0.41585565 -0.10348404 2.0014362 1315860
0.42549574 -0.10541382 2.0017114 1315860
0.43528673 -0.10546409 2.0026658 1315860
0.44508648 -0.10551441 2.0036213 1315860
0.45489609 -0.10556476 2.0045776 1315860
0.46471456 -0.10561517 2.0055346 1315860
0.47257635 -0.10565554 2.0063012 1315860
0.35624084 -0.090017796 2.0002761 1315860
0.36690474 -0.091007337 2.0009854 1315860
0.37562406 -0.091988862 2.0015044 1315860
0.3852596 -0.093917146 2.0017796 1315860
0.39503109 -0.093961924 2.0027339 1315860
0.40481257 -0.094006747 2.0036898 1315860
0.41460276 -0.094051622 2.0046458 1315860
0.42440292 -0.094096541 2.0056031 1315860
0.43501046 -0.09468516 2.0064483 1315860
0.44455931 -0.093716405 2.0077393 1315860
0.45517445 -0.095319018 2.0082269 1315860
0.46550578 -0.096178181 2.008949 1315860
0.47321993 -0.098106533 2.0090334 1315860
0.3274878 -0.082350731 2.0001309 1315860
0.3352766 -0.08238212 2.0008934 1315860
0.34490293 -0.084308922 2.0011683 1315860
0.35465288 -0.084349103 2.0021222 1315860
0.3644115 -0.084389344 2.003077 1315860
0.37418005 -0.084429599 2.0040329 1315860
0.38591421 -0.084477983 2.0051811 1315860
0.39570269 -0.084518328 2.0061388 1315860
0.40550113 -0.084558725 2.0070975 1315860
0.41530833 -0.084599145 2.0080571 1315860
0.42431051 -0.085015409 2.0088038 1315860
0.43480325 -0.086575836 2.0092945 1315860
0.44070128 -0.086600691 2.0098712 1315860
0.28727996 -0.070862353 2.0001991 1315860
0.29505318 -0.070889354 2.0009613 1315860
0.30467498 -0.072814636 2.0012362 1315860
0.31559581 -0.074745007 2.0016387 1315860
0.32455003 -0.07430464 2.0026832 1315860
0.33573213 -0.074818462 2.003612 1315860
0.345489 -0.074854165 2.0045683 1315860
0.35525578 -0.074889921 2.0055258 1315860
0.36503127 -0.074925683 2.0064838 1315860
0.37481675 -0.074961506 2.007443 1315860
0.38461092 -0.074997351 2.0084028 1315860
0.3942807 -0.076932073 2.0086792 1315860
0.40591538 -0.078874461 2.0091479 1315860
0.41376826 -0.078904644 2.009917 1315860
0.25853303 -0.063196965 2.0000539 1315860
0.26435393 -0.063215032 2.0006256 1315860
0.27476496 -0.064762726 2.0011125 1315860
0.28562841 -0.065176196 2.0020449 1315860
0.29535374 -0.065207273 2.0029998 1315860
0.30508897 -0.065238386 2.0039556 1315860
0.31483284 -0.06526953 2.0049121 1315860
0.32458666 -0.06530071 2.0058696 1315860
0.33434916 -0.065331906 2.0068281 1315860
0.34412166 -0.065363146 2.0077875 1315860
0.35505301 -0.065778486 2.0087264 1315860
0.36552846 -0.067334153 2.0092168 1315860
0.37140638 -0.067353487 2.0097935 1315860
0.22413409 -0.051723141 2.0006933 1315860
0.23568296 -0.053650647 2.001159 1315860
0.24571793 -0.054815609 2.0017438 1315860
0.25500071 -0.055599816 2.0023885 1315860
0.26471308 -0.055626336 2.0033436 1315860
0.2744354 -0.055652883 2.0042999 1315860
0.28497282 -0.056224946 2.0051439 1315860
0.29441899 -0.055232078 2.006433 1315860
0.30560806 -0.055737998 2.0073652 1315860
0.3153688 -0.055764657 2.0083251 1315860
0.32502869 -0.057696659 2.0086014 1315860
0.33469069 -0.05962877 2.008878 1315860
0.34251583 -0.059651598 2.0096469 1315860
0.17811258 -0.040218968 2.0001891 1315860
0.18584464 -0.040234301 2.0009515 1315860
0.19545078 -0.042155363 2.0012264 1315860
0.20556124 -0.0436024 2.0017192 1315860
0.21474449 -0.044097543 2.0024562 1315860
0.22443861 -0.044118576 2.0034115 1315860
0.23557749 -0.044619083 2.0043406 1315860
0.24498776 -0.04361878 2.0056291 1315860
0.25552106 -0.04418603 2.0064745 1315860
0.26525354 -0.044207145 2.0074337 1315860
0.27448481 -0.044704426 2.0081747 1315860
0.28465 -0.046158776 2.0086701 1315860
0.29338104 -0.047132991 2.0091927 1315860
0.30211678 -0.048107766 2.0097156 1315860
0.15516385 -0.03256515 2.0006154 1315860
0.16476418 -0.034484837 2.0008903 1315860
0.17442691 -0.034501281 2.0018442 1315860
0.18603396 -0.034521025 2.00299 1315860
0.19571635 -0.034537498 2.0039458 1315860
0.20540862 -0.034553986 2.0049024 1315860
0.21510951 -0.034570489 2.0058599 1315860
0.22482027 -0.034587007 2.0068185 1315860
0.23453973 -0.034603544 2.0077779 1315860
0.24426912 -0.034620095 2.0087383 1315860
0.25586906 -0.036552656 2.0092075 1315860
0.26366478 -0.036566649 2.0099764 1315860
0.10916153 -0.021066261 2.0001113 1315860
0.11493991 -0.021072283 2.0006833 1315860
0.12531491 -0.02260978 2.0011699 1315860
0.13606203 -0.024911551 2.0014236 1315860
0.14489998 -0.024376607 2.0024905 1315860
0.15537466 -0.024934862 2.0033333 1315860
0.16504408 -0.024946759 2.0042896 1315860
0.17472337 -0.024958672 2.0052466 1315860
0.18441127 -0.024970593 2.0062046 1315860
0.19410905 -0.024982529 2.0071635 1315860
0.20525473 -0.025475081 2.0080962 1315860
0.21540245 -0.026924629 2.0085917 1315860
0.22411515 -0.027893804 2.0091143 1315860
0.23283254 -0.028863536 2.0096374 1315860
0.084275156 -0.013407381 2.0003471 1315860
0.094842978 -0.014369795 2.0010564 1315860
0.10541894 -0.015332942 2.0017664 1315860
0.11505698 -0.015340254 2.0027208 1315860
0.12470482 -0.015347574 2.0036762 1315860
0.13436125 -0.015354899 2.0046329 1315860
0.14402753 -0.015362233 2.0055902 1315860
0.15563889 -0.01537104 2.0067403 1315860
0.1653249 -0.015378388 2.0076995 1315860
0.17502077 -0.015385744 2.0086601 1315860
0.1846624 -0.017312083 2.0089364 1315860
0.1924303 -0.017318711 2.0097055 1315860
0.084389634 -0.0057520899 2.0030642 1315860
0.094024509 -0.005754834 2.0040202 1315860
0.10559811 -0.0057581295 2.0051684 1315860
0.11525262 -0.0057608797 2.0061262 1315860
0.12491696 -0.0057636327 2.0070851 1315860
0.13458994 -0.0057663876 2.008045 1315860
0.14369081 -0.0068674376 2.0085595 1315860
0.15485463 -0.0086561153 2.0090358 1315860
0.16549383 -0.0096217236 2.0097511 1315860
0.084561907 0.0057673152 2.0071533 1315860
0.094216533 0.0057700742 2.0081129 1315860
0.10577786 0.0038471043 2.0085814 1315860
0.11540955 0.0019234896 2.008858 1315860
0.12315065 0.0019242261 2.0096271 1315860
0.082744524 0.013470039 2.0096953 1315860
0.45613542 -0.090457238 2.0100408 1315860
0.46401206 -0.090491883 2.0108106 1315860
0.47370398 -0.092429355 2.0110884 1315860
0.4292005 -0.082760632 2.0100865 1315860
0.43509963 -0.082784407 2.010664 1315860
0.44560465 -0.084344663 2.0111556 1315860
0.45463222 -0.084761254 2.011905 1315860
0.46448708 -0.084801875 2.0128691 1315860
0.47435075 -0.084842533 2.0138342 1315860
0.39468384 -0.071235538 2.0107329 1315860
0.40436578 -0.07317026 2.0110102 1315860
0.41469288 -0.07402166 2.0117352 1315860
0.42532203 -0.075621992 2.0122247 1315860
0.4348917 -0.074637763 2.0135229 1315860
0.4455469 -0.075220361 2.014375 1315860
0.45540884 -0.075256459 2.0153418 1315860
0.46528095 -0.075292587 2.0163095 1315860
0.47516188 -0.075328745 2.0172777 1381653
0.3598986 -0.063511521 2.0100088 1315860
0.36577761 -0.06352976 2.0105863 1315860
0.37626526 -0.065085247 2.0110776 1315860
0.38526663 -0.065494642 2.011827 1315860
0.39508787 -0.065526031 2.0127909 1315860
0.4049179 -0.06555745 2.013756 1315860
0.41475794 -0.065588892 2.0147223 1315860
0.42460689 -0.065620378 2.0156891 1315860
0.43446589 -0.065651886 2.0166569 1315860
0.44433367 -0.065683424 2.0176258 1315860
0.45421162 -0.065714985 2.0185955 1315860
0.46591774 -0.067664333 2.019069 1315860
0.47383255 -0.067690365 2.0198457 1315860
0.32536101 -0.051980674 2.0106552 1315860
0.335033 -0.053912669 2.0109324 1315860
0.34533471 -0.0547571 2.011657 1315860
0.35450646 -0.05587152 2.0121739 1315860
0.36431465 -0.055898301 2.0131385 1315860
0.37493664 -0.056472979 2.0139902 1315860
0.38448256 -0.055475898 2.0152903 1315860
0.39576304 -0.055984166 2.0162308 1315860
0.40561023 -0.056011055 2.0171993 1315860
0.41546747 -0.05603797 2.0181687 1315860
0.425188 -0.057979491 2.0184479 1315860
0.43399829 -0.058961544 2.0189755 1315860
0.44478998 -0.059949927 2.0196977 1315860
0.27908483 -0.040419184 2.0101461 1315860
0.28494102 -0.040430792 2.0107236 1315860
0.29540965 -0.041980736 2.0112152 1315860
0.30558044 -0.044294897 2.0114071 1315860
0.31457317 -0.043836404 2.0124624 1315860
0.32580528 -0.044338539 2.0134003 1315860
0.33560506 -0.044359803 2.0143661 1315860
0.34541482 -0.044381093 2.0153325 1315860
0.35523343 -0.044402394 2.0163 1315860
0.36506209 -0.044423722 2.0172687 1315860
0.37489954 -0.044445068 2.0182381 1315860
0.38461539 -0.046385054 2.0185173 1315860
0.3937659 -0.047045186 2.0191925 1315860
0.40222001 -0.048343726 2.0195727 1315860
0.25604346 -0.032727301 2.0105767 1315860
0.26638576 -0.034019869 2.0111468 1315860
0.27546474 -0.034673162 2.0118177 1315860
0.28523266 -0.03468978 2.0127819 1315860
0.29501063 -0.034706417 2.013747 1315860
0.30479732 -0.034723066 2.014713 1315860
0.314594 -0.034739733 2.0156801 1315860
0.3243995 -0.034756411 2.0166478 1315860
0.33421504 -0.034773108 2.0176165 1315860
0.34519523 -0.035176117 2.0185647 1315860
0.35383251 -0.0354474 2.0193264 1315860
0.36162353 -0.036742497 2.0196424 1315860
0.20978661 -0.021171127 2.0100677 1315860
0.21562266 -0.021177206 2.0106449 1315860
0.22607394 -0.022722382 2.0111368 1315860
0.23536098 -0.024266621 2.0115132 1315860
0.24468572 -0.025044769 2.0121641 1315860
0.25444058 -0.02505677 2.0131285 1315860
0.26420546 -0.025068788 2.0140944 1315860
0.2754223 -0.025563084 2.0150337 1315860
0.28490856 -0.024545131 2.0163355 1315860
0.29551503 -0.025107319 2.0171902 1315860
0.30531871 -0.025119381 2.0181594 1315860
0.31502455 -0.02705662 2.0184383 1315860
0.32415143 -0.027710265 2.0191138 1315860
0.33259213 -0.02900511 2.0194945 1315860
0.18478826 -0.013474129 2.0103056 1315860
0.19544451 -0.014441358 2.0110221 1315860
0.20531626 -0.015793011 2.0115247 1315860
0.21468925 -0.015031554 2.0127244 1315860
0.22558767 -0.015424105 2.0136683 1315860
0.23534065 -0.015431504 2.0146341 1315860
0.24510366 -0.01543891 2.0156012 1315860
0.25487542 -0.015446323 2.0165691 1315860
0.26465717 -0.015453744 2.0175378 1315860
0.27444771 -0.01546117 2.0185075 1315860
0.28321886 -0.016432136 2.0190353 1315860
0.29395694 -0.017405335 2.0197577 1315860
0.1463097 -0.0019251253 2.0105662 1315860
0.15674362 -0.0034655319 2.0110583 1315860
0.16566315 -0.00385197 2.0118074 1315860
0.17531927 -0.0057779872 2.0120857 1315860
0.18504053 -0.0057807565 2.0130501 1315860
0.19477171 -0.0057835276 2.0140157 1315860
0.2045116 -0.005786302 2.0149817 1315860
0.21426147 -0.0057890792 2.015949 1315860
0.22546539 -0.0062748315 2.01689 1315860
0.23492806 -0.0052434662 2.0181944 1315860
0.24543907 -0.0077296873 2.0183594 1315860
0.25454235 -0.0083768414 2.0190349 1315860
0.26492894 -0.0096689211 2.0196097 1315860
0.105886 0.0096259546 2.0106347 1315860
0.11552759 0.0077024829 2.0109124 1315860
0.12575015 0.0068802605 2.0116372 1315860
0.13486536 0.0057816892 2.0121539 1315860
0.14456816 0.0057844613 2.0131185 1315860
0.15427966 0.0057872366 2.0140841 1315860
0.16400109 0.0057900143 2.0150506 1315860
0.17567877 0.0057933512 2.0162115 1315860
0.18542011 0.0057961345 2.0171797 1315860
0.19517148 0.005798921 2.0181491 1315860
0.20486142 0.0038659675 2.0184283 1315860
0.21361405 0.0029000947 2.0189562 1315860
0.2243268 0.0019338502 2.0196786 1315860
0.085359789 0.016045598 2.0108654 1315860
0.094377123 0.015409087 2.0115361 1315860
0.10599437 0.015417949 2.0126932 1315860
0.11568531 0.015425342 2.0136578 1315860
0.12538618 0.015432742 2.0146239 1315860
0.13509573 0.015440149 2.0155907 1315860
0.14481522 0.015447564 2.0165586 1315860
0.15454344 0.015454985 2.0175276 1315860
0.16428162 0.015462414 2.0184972 1315860
0.17497367 0.014500936 2.0192194 1315860
0.18372205 0.013537414 2.0197475 1315860
0.08485058 0.025071191 2.0140054 1315860
0.094538316 0.025083221 2.0149717 1315860
0.10505575 0.024542306 2.0158248 1315860
0.11443599 0.025592657 2.0171278 1315860
0.12560065 0.025121793 2.0180702 1315860
0.13528061 0.02319159 2.0183492 1315860
0.14401469 0.022230808 2.018877 1315860
0.15470213 0.021271518 2.0195992 1315860
0.084995642 0.034771528 2.0174484 1315860
0.094700016 0.03478824 2.0184181 1315860
0.1037531 0.034155294 2.0190933 1315860
0.11215214 0.032872126 2.019474 1315860
0.085082918 0.040607668 2.0195198 1315860
0.46441638 -0.0619215 2.0209498 1315860
0.4723385 -0.061945342 2.021728 1315860
0.42562479 -0.052235745 2.0205212 1315860
0.43617901 -0.053796142 2.0210178 1315860
0.44524735 -0.054203339 2.0217745 1315860
0.45499012 -0.056145888 2.0220554 1315860
0.46505368 -0.054255575 2.0237229 1315860
0.47298688 -0.054276492 2.0245032 1315860
0.38501051 -0.040629197 2.0205908 1315860
0.39544109 -0.041930456 2.0211668 1315860
0.40511289 -0.043413661 2.0216029 1315860
0.41515136 -0.04508137 2.0220103 1315860
0.42476147 -0.044072926 2.0233212 1315860
0.43493098 -0.045124821 2.0239589 1315860
0.44456312 -0.044115428 2.0252724 1315860
0.45539218 -0.045101214 2.0259995 1315860
0.46504697 -0.044090413 2.0273154 1315860
0.47379994 -0.044659674 2.0279834 1315860
0.35596329 -0.032887895 2.0204427 1315860
0.36649996 -0.034443475 2.0209394 1315860
0.37554181 -0.034843408 2.0216956 1315860
0.38540658 -0.03486019 2.0226696 1315860
0.39528024 -0.034876984 2.023644 1315860
0.405164 -0.0348938 2.0246196 1315860
0.41505665 -0.034910623 2.0255959 1315860
0.42495951 -0.034927472 2.0265734 1315860
0.43487129 -0.034944333 2.0275517 1315860
0.44479331 -0.034961212 2.0285313 1315860
0.45456779 -0.036909338 2.0288131 1315860
0.4625169 -0.036923602 2.0295973 1315860
0.31534821 -0.021281132 2.0205123 1315860
0.32575849 -0.022576824 2.0210879 1315860
0.33541489 -0.024055796 2.0215242 1315860
0.34462905 -0.025167754 2.0220461 1315860
0.35448062 -0.025179874 2.02302 1315860
0.36434105 -0.025192013 2.0239952 1315860
0.37421161 -0.025204159 2.0249708 1315860
0.3849003 -0.025769157 2.0258327 1315860
0.39450887 -0.024746263 2.0271482 1315860
0.40532997 -0.025726004 2.0278766 1315860
0.41452295 -0.026027897 2.0286827 1315860
0.42447865 -0.028168702 2.0289149 1315860
0.43532008 -0.029150885 2.029644 1315860
0.28630716 -0.013541546 2.0203638 1315860
0.29605398 -0.014834627 2.020875 1315860
0.30468354 -0.015098123 2.0216386 1315860
0.31567261 -0.015492444 2.0225906 1315860
0.32551223 -0.015499908 2.0235651 1315860
0.33536196 -0.01550738 2.0245404 1315860
0.34522063 -0.015514859 2.025517 1315860
0.35508934 -0.015522345 2.0264943 1315860
0.36496702 -0.015529837 2.0274725 1315860
0.37485489 -0.015537339 2.0284519 1315860
0.38404715 -0.016190352 2.0291338 1315860
0.39254105 -0.017489444 2.0295181 1315860
0.24569122 -0.0019345726 2.0204327 1315860
0.25608125 -0.0032247 2.0210087 1315860
0.26520133 -0.0038708814 2.0216858 1315860
0.27491808 -0.0058063548 2.0219667 1315860
0.28473568 -0.0058091516 2.0229406 1315860
0.29456213 -0.0058119497 2.023916 1315860
0.30439869 -0.0058147516 2.0248919 1315860
0.31505722 -0.0063714804 2.0257537 1315860
0.3246201 -0.0053360285 2.0270691 1315860
0.33541563 -0.0063087568 2.0277972 1315860
0.34458047 -0.0066029197 2.0286033 1315860
0.35476217 -0.0081593646 2.0290644 1315860
0.36534366 -0.0097165816 2.0295649 1315860
0.2050719 0.0096731931 2.0205021 1315860
0.21557181 0.0081280265 2.0209985 1315860
0.22455746 0.007744018 2.0217552 1315860
0.23426951 0.0058100927 2.0220363 1315860
0.24551661 0.0053283032 2.0229828 1315860
0.25502092 0.0063703111 2.0242951 1315860
0.26565659 0.0058190608 2.0251563 1315860
0.27548456 0.0058218692 2.0261333 1315860
0.2853227 0.0058246804 2.0271115 1315860
0.29516968 0.005827494 2.0280902 1315860
0.3049219 0.003885017 2.0283723 1315860
0.31409034 0.0032385567 2.0290544 1315860
0.32257065 0.0019431956 2.0294385 1315860
0.177991 0.017412145 2.0205479 1315860
0.18640949 0.016125904 2.0209293 1315860
0.19550584 0.015486236 2.0216064 1315860
0.20528282 0.015493693 2.0225801 1315860
0.21506985 0.015501159 2.0235548 1315860
0.2248657 0.015508632 2.0245302 1315860
0.23467164 0.015516113 2.0255067 1315860
0.24448638 0.015523599 2.0264843 1315860
0.25431123 0.015531097 2.0274625 1315860
0.26530737 0.015149867 2.02842 1315860
0.27395651 0.014896345 2.0291891 1315860
0.28374392 0.013604151 2.0297046 1315860
0.13541958 0.029018439 2.0204225 1315860
0.14590198 0.027478088 2.0209191 1315860
0.1548612 0.02710134 2.0216756 1315860
0.16456316 0.025170177 2.0219564 1315860
0.17432696 0.025182301 2.0229304 1315860
0.18410078 0.025194442 2.0239055 1315860
0.19584142 0.025209019 2.0250769 1315860
0.20563535 0.025221184 2.0260537 1315860
0.21543938 0.025233358 2.0270317 1315860
0.22525223 0.025245545 2.0280106 1315860
0.23446707 0.024141567 2.0285354 1315860
0.2441389 0.022665938 2.0289743 1315860
0.25457367 0.021376373 2.0295546 1315860
0.10639313 0.03675399 2.0202742 1315860
0.11512817 0.035796508 2.0208032 1315860
0.12581582 0.034841832 2.0215273 1315860
0.13555886 0.03485861 2.0225005 1315860
0.14531192 0.034875408 2.0234752 1315860
0.15507376 0.034892216 2.0244508 1315860
0.16484563 0.034909047 2.0254269 1315860
0.17462632 0.034925889 2.0264044 1315860
0.18441707 0.034942754 2.0273826 1315860
0.19421664 0.034959629 2.0283618 1315860
0.20300955 0.033997171 2.0288949 1315860
0.21377128 0.03303735 2.0296245 1315860
0.085170396 0.046457138 2.0215964 1315860
0.094862312 0.044528745 2.0218768 1315860
0.10459214 0.044550192 2.022851 1315860
0.11433195 0.044571668 2.0238259 1315860
0.12553281 0.044107616 2.0247741 1315860
0.13496761 0.04517572 2.026089 1315860
0.14556158 0.044640508 2.0269518 1315860
0.15534031 0.04466207 2.0279305 1315860
0.1645367 0.043563154 2.0284553 1315860
0.17419301 0.042091787 2.0288942 1315860
0.18460737 0.040807832 2.0294745 1315860
0.085287288 0.05427428 2.0243711 1315860
0.09502513 0.054300457 2.0253475 1315860
0.10477173 0.054326653 2.0263245 1315860
0.11452837 0.05435288 2.0273027 1315860
0.12429382 0.054379128 2.0282819 1315860
0.13327739 0.054010879 2.0290439 1315860
0.14380416 0.052469015 2.0295444 1315860
0.085433893 0.064077057 2.0278504 1315860
0.094611824 0.062983215 2.0283751 1315860
0.10425261 0.061516106 2.0288143 1315860
0.11464655 0.060237762 2.0293949 1315860
0.45488065 -0.033046871 2.0302095 1315860
0.46573967 -0.034030721 2.0309401 1315860
0.47461557 -0.03501194 2.0314746 1315860
0.4160566 -0.021386078 2.0304761 1315860
0.42666045 -0.02294654 2.0309772 1315860
0.43576992 -0.023344137 2.0317414 1315860
0.44555938 -0.02529195 2.0320251 1315860
0.45550787 -0.025304191 2.0330086 1315860
0.4654665 -0.025316445 2.0339932 1315860
0.47543421 -0.025328711 2.0349786 1315860
0.38686508 -0.01360832 2.0303264 1315860
0.39571735 -0.014583817 2.0308604 1315860
0.40457451 -0.015559882 2.031395 1315860
0.41450068 -0.015567412 2.032378 1315860
0.42443579 -0.015574948 2.0333622 1315860
0.43438116 -0.015582494 2.0343473 1315860
0.44433558 -0.015590042 2.0353329 1315860
0.45430025 -0.015597601 2.0363197 1315860
0.46427396 -0.015605168 2.0373075 1315860
0.47425795 -0.01561274 2.0382965 1381653
0.34605226 -0.0019441127 2.0303965 1315860
0.3568731 -0.0029168576 2.0311272 1315860
0.36572117 -0.0038899789 2.0316617 1315860
0.3755005 -0.0058350014 2.0319455 1315860
0.3854146 -0.0058378242 2.0329292 1315860
0.39533898 -0.0058406503 2.0339136 1315860
0.40527233 -0.0058434792 2.034899 1315860
0.41521594 -0.0058463109 2.0358853 1315860
0.4251686 -0.0058491458 2.0368726 1315860
0.43513152 -0.0058519831 2.0378611 1315860
0.44494957 -0.0078054555 2.0381455 1315860
0.45409793 -0.0081989737 2.0389149 1315860
0.46475536 -0.0097637642 2.0394201 1315860
0.3052367 0.0097208982 2.0304663 1315860
0.31569543 0.0084277028 2.0310478 1315860
0.32539722 0.0069481684 2.0314884 1315860
0.33465421 0.005838776 2.0320156 1315860
0.34454957 0.0058416035 2.0329993 1315860
0.35445389 0.0058444333 2.0339839 1315860
0.36436838 0.0058472659 2.0349693 1315860
0.37510562 0.0052927523 2.0358396 1315860
0.38475531 0.0063409749 2.0371685 1315860
0.39498183 0.0052978909 2.0378151 1315860
0.40407392 0.0052064881 2.0386858 1315860
0.41486481 0.0029288214 2.0389524 1315860
0.42575645 0.0019530104 2.0396891 1315860
0.27605331 0.017496325 2.0303164 1315860
0.28684855 0.016530614 2.0310473 1315860
0.29567784 0.015562652 2.0315819 1315860
0.30555221 0.015570185 2.0325654 1315860
0.31543553 0.015577724 2.0335493 1315860
0.32532904 0.015585273 2.0345347 1315860
0.33523151 0.015592827 2.0355206 1315860
